1000

10.3775, 10.5364, 7.28581
0.499714, 0.252993, 7.94706
1.8381, 0.395633, 8.34916
2.83877, 0.948854, 7.95338
3.88365, 0.894953, 8.08275
4.76675, 0.420456, 7.86581
5.87853, 0.468022, 8.53522
6.97952, 0.700345, 8.30547
8.70077, 10.8708, 8.10515
9.59757, 0.407938, 8.65887
10.5708, 10.6137, 8.33864
0.105072, 1.77849, 7.71684
1.17922, 1.48602, 8.13473
2.06255, 2.08122, 8.21832
3.66659, 1.8921, 8.21129
4.797, 1.44457, 7.55397
5.43843, 2.33091, 9.49812
7.02532, 1.77387, 8.42252
7.8091, 1.77501, 7.73308
9.59402, 1.47512, 8.47027
10.5604, 0.681718, 8.16471
0.157963, 2.89274, 8.1425
0.795569, 2.44451, 8.803
2.05967, 3.04086, 8.58498
3.78788, 3.19125, 7.94873
5.03228, 2.34722, 7.95224
6.13416, 2.56383, 8.23534
7.35967, 2.72742, 8.27078
8.72047, 2.24786, 7.74402
9.47784, 2.99565, 7.62052
10.1906, 2.3432, 7.95973
1.05492, 3.50982, 8.46973
1.79398, 4.23803, 8.62487
2.81039, 3.81765, 8.85702
4.3463, 4.37061, 8.5995
5.02253, 3.35328, 8.12905
5.88071, 3.87752, 8.04624
7.14266, 4.26275, 8.34379
8.15928, 4.29339, 8.72146
8.81324, 3.83883, 7.97653
10.6411, 3.76752, 7.44915
0.934897, 5.23426, 7.63717
1.68709, 5.26853, 8.46227
2.35972, 4.84547, 7.76238
3.36576, 4.97804, 8.24982
5.00558, 4.70926, 7.60779
5.8469, 5.05216, 8.29659
7.03407, 5.39463, 8.28542
8.32017, 5.30567, 8.45858
9.125, 4.81462, 8.12195
10.3942, 4.68106, 8.45273
0.239596, 5.82757, 8.2867
1.36849, 6.32033, 7.86807
2.70934, 6.0262, 8.03901
3.1527, 6.44709, 6.93772
4.66715, 5.58967, 7.99736
5.72388, 6.01766, 7.80812
6.76728, 6.68084, 8.03118
7.72291, 6.2376, 8.39024
9.01767, 6.54118, 7.9806
9.9496, 5.45648, 7.99842
0.0695272, 6.90229, 8.13734
1.52999, 7.20084, 8.44986
2.97449, 7.03787, 7.72557
3.89278, 7.49483, 7.80504
4.91725, 7.23395, 7.94466
4.71323, 6.43644, 8.73731
6.60869, 7.55566, 8.53453
8.38099, 7.34694, 7.7684
9.00712, 6.82833, 9.11726
10.0579, 6.51738, 7.74385
0.603714, 7.73473, 8.43359
1.61176, 8.2082, 8.47693
2.99052, 8.01772, 8.03322
3.67954, 8.79611, 8.75118
4.68206, 8.14993, 8.42065
6.01084, 8.11391, 7.92175
7.00951, 8.34095, 7.90463
8.0262, 8.0679, 8.51098
9.036, 7.69792, 8.44729
10.5358, 7.93116, 8.6545
0.476103, 8.67272, 8.0591
1.59521, 9.59116, 8.65284
2.57561, 9.34508, 8.54657
4.10506, 9.79007, 7.8506
5.41803, 9.02771, 8.10428
6.3713, 9.01429, 7.47964
6.99804, 9.319, 8.21423
8.27099, 9.15702, 8.07801
9.48694, 8.71831, 8.44489
10.2893, 8.86631, 7.76994
0.26144, 9.68686, 8.07892
1.38282, 10.4116, 8.05728
2.34945, 10.2969, 8.28655
3.61508, 10.8434, 8.3674
5.32496, 10.2858, 8.07536
6.35113, 10.0044, 7.7667
7.38292, 10.7648, 7.98671
8.38963, 9.91524, 7.40743
9.08735, 10.097, 8.79679
10.0979, 9.68027, 8.45469
0.638574, 0.461979, 8.99977
1.38407, 0.783419, 9.59704
2.90859, 0.314282, 8.993
3.89469, 10.9382, 9.52596
4.79484, 0.512555, 9.27828
6.06186, 1.48571, 8.87166
6.78225, 0.213569, 9.20462
8.64441, 0.749151, 9.29906
9.3526, 0.629225, 10.0255
10.5652, 0.219871, 9.35659
0.0885621, 1.58192, 8.95316
1.84737, 1.85101, 9.33356
2.79032, 1.69612, 8.91109
3.79763, 1.31222, 9.07968
4.91131, 1.43242, 8.60512
6.29648, 1.74836, 9.96233
7.18105, 1.14387, 9.36837
8.02083, 0.659252, 8.51617
8.95076, 1.94765, 9.51113
10.0133, 1.66102, 9.3952
10.8891, 3.36209, 9.10956
2.57292, 2.76142, 9.46339
3.29406, 2.77243, 8.76211
4.34837, 2.4167, 9.10006
5.39708, 3.28196, 9.16935
6.28626, 3.33237, 9.88333
6.64825, 2.80501, 9.06477
7.92023, 2.11303, 9.25293
8.83548, 3.12283, 8.67985
9.61334, 2.47457, 8.95676
0.476264, 4.38819, 9.98859
1.69817, 3.72063, 9.64644
2.77831, 3.6377, 9.89968
3.8741, 3.62577, 9.20731
5.08567, 4.39744, 9.34052
6.19995, 4.34946, 8.96915
7.44665, 3.57116, 9.00233
8.2809, 2.93833, 9.8017
9.40035, 3.40213, 9.74653
10.0738, 3.37859, 8.37174
0.471941, 4.33543, 8.75969
1.60263, 4.74077, 9.59394
2.70575, 4.71632, 9.45219
3.74232, 4.21277, 10.0191
4.71707, 5.39992, 9.06449
6.30761, 5.50818, 9.0707
7.25107, 4.95384, 9.34001
8.35, 5.02963, 9.54242
9.61633, 4.27149, 9.09319
10.5141, 4.91629, 9.4943
0.27491, 5.79397, 9.44754
1.38453, 6.31776, 9.01145
2.36079, 5.79309, 8.99448
3.31138, 6.01627, 9.51822
4.28709, 6.22915, 9.79591
6.18286, 6.49865, 8.85855
7.19389, 6.08643, 9.3991
8.26444, 6.28827, 9.55895
9.12296, 5.81329, 8.96162
10.3242, 5.93136, 8.80651
0.733946, 6.75947, 9.65247
1.74001, 7.48444, 9.41264
2.59696, 6.92453, 8.67558
3.60418, 6.91836, 8.58925
4.58113, 7.43788, 9.33593
5.64999, 7.38481, 8.84391
6.75376, 7.32604, 9.73396
7.72008, 7.06254, 8.95854
9.87241, 6.65823, 9.7616
10.0818, 7.04137, 8.72454
0.881103, 7.97605, 9.65382
1.77137, 8.48391, 9.46369
2.6777, 8.11, 9.01292
3.65928, 7.79631, 9.11796
5.13173, 8.49106, 9.25954
6.2204, 8.11677, 9.28498
7.64273, 7.9658, 9.48084
8.73112, 7.86773, 9.58044
9.67026, 8.03659, 9.23103
10.8295, 7.64462, 9.59987
10.4848, 8.72152, 9.26506
0.704667, 9.05776, 9.05312
2.01775, 9.62254, 9.67775
3.02531, 8.89459, 9.67445
4.3495, 9.39812, 9.73529
6.07225, 9.42211, 8.91231
7.07233, 9.00324, 9.1867
8.65316, 8.93886, 8.98829
9.49849, 9.28377, 9.51423
10.441, 9.59426, 9.75219
0.641917, 10.0425, 9.30682
1.67884, 10.4894, 9.20106
3.63226, 9.83083, 8.85234
4.50538, 10.3939, 8.659
5.48567, 9.2705, 9.825
5.58471, 10.5905, 9.03417
6.76967, 10.2584, 8.67937
7.6822, 9.8068, 8.81535
8.56345, 10.3515, 9.86842
9.61964, 10.5965, 9.72521
0.4583, 0.137934, 10.1582
1.45916, 0.385706, 10.5239
2.38198, 1.03792, 9.71106
3.31759, 0.579018, 10.1767
4.48018, 0.32001, 10.2842
5.77526, 0.750753, 9.67944
6.68795, 0.549453, 10.3225
7.79516, 0.0411367, 9.68065
8.24681, 0.0540248, 10.7243
10.2986, 0.472702, 10.3358
0.512173, 1.23177, 9.97597
1.38279, 1.43974, 10.5689
2.32146, 1.92424, 10.3846
3.61983, 1.57765, 10.1889
4.80957, 1.48912, 9.62272
5.95592, 1.15069, 10.6957
7.40267, 1.94081, 10.1507
8.03517, 1.02988, 10.1223
9.4886, 1.48218, 10.5567
10.9174, 2.14896, 9.93599
0.453567, 2.913, 10.6273
1.08355, 2.78322, 9.73152
2.42178, 2.91443, 10.79
3.56098, 2.57206, 9.82825
4.53857, 2.55672, 10.377
5.6603, 2.58429, 10.4401
7.27693, 3.07029, 9.94612
8.31855, 2.14976, 10.4991
9.37981, 2.48061, 10.3094
10.4427, 2.96884, 10.2869
0.4488, 4.31062, 0.129076
1.40855, 3.48751, 10.575
3.1529, 3.94233, 10.7916
3.98982, 3.36439, 10.6903
4.81967, 3.60656, 9.98904
6.38369, 3.56475, 0.372926
7.81943, 3.89696, 10.255
8.53296, 3.7242, 0.279255
9.47273, 3.88656, 10.661
10.3426, 4.54186, 10.7054
0.816624, 5.26406, 10.3441
2.25376, 4.31841, 10.4553
3.05295, 5.31993, 10.4201
4.49777, 4.34084, 10.7714
5.2471, 4.94768, 10.4038
6.40367, 4.83453, 9.93053
7.36615, 5.41319, 10.2494
8.13258, 4.80077, 10.5488
8.79712, 4.18571, 9.89844
9.51239, 4.88627, 10.1292
0.241276, 6.25237, 10.3768
1.6963, 6.04625, 9.94117
2.943, 6.35272, 10.848
4.10476, 5.34264, 10.2901
4.97199, 6.01633, 10.502
5.51323, 5.65085, 9.73747
6.60001, 6.12918, 10.2134
8.18045, 5.98988, 10.6762
9.07206, 5.81607, 10.1247
10.2189, 5.7556, 10.0664
0.477336, 7.50938, 10.5234
1.2534, 6.87576, 10.5496
2.55281, 6.99624, 10.0869
3.56747, 6.97246, 10.0897
4.53529, 7.06159, 10.4165
5.49127, 6.7917, 9.91917
6.72006, 7.21278, 10.78
7.92788, 7.02683, 10.2401
9.04709, 6.77589, 10.4272
10.3718, 6.92623, 10.6303
0.628604, 8.43707, 10.906
1.77202, 7.96466, 10.6277
2.36331, 8.89741, 10.4646
2.98967, 7.8833, 10.2464
4.34425, 8.38935, 9.87377
5.71456, 8.16586, 10.2816
6.99316, 8.29635, 10.4969
8.60985, 7.88739, 10.6945
9.64902, 7.59343, 10.1567
10.5372, 8.62718, 10.5616
0.487817, 9.33337, 10.0932
1.36267, 9.24003, 10.6854
2.56633, 9.89683, 10.5299
3.69985, 9.1292, 10.4706
4.69068, 9.20561, 10.7726
7.02042, 10.369, 9.92596
7.15212, 9.28514, 10.3749
8.16313, 9.24661, 9.94583
9.22421, 9.17864, 10.512
10.1924, 9.56811, 10.9026
0.0644384, 10.246, 10.5798
1.20353, 10.2827, 10.1484
2.32777, 10.7374, 9.94053
3.45638, 10.03, 9.84956
5.05559, 10.1661, 10.1955
5.53875, 0.0753494, 10.4781
6.60001, 10.4103, 10.8541
7.68003, 10.1196, 10.7598
9.11117, 10.0252, 0.120806
9.51549, 0.00345997, 10.8778
1000

0.522986, 0.590218, 0.229811
1.43839, 0.310448, 0.562041
2.64223, 0.313572, 0.289875
3.83402, 0.221015, 0.337012
4.84753, 1.04304, 0.777738
6.03655, 0.401315, 0.501297
7.02033, 0.465369, 0.213403
7.98099, 10.5149, 0.746153
8.93574, 0.938349, 0.561839
10.2293, 0.946994, 0.221826
0.673322, 1.54582, 0.496074
1.82909, 1.54311, 0.459667
2.86769, 1.46465, 0.107171
3.87108, 1.80252, 0.570939
5.00335, 1.68529, 10.9171
6.1564, 1.57825, 0.540723
7.31788, 1.79527, 0.49856
7.93248, 0.910917, 0.559793
9.60684, 1.90886, 0.590728
10.6759, 2.03418, 10.6072
0.211969, 2.44934, 0.798677
1.42544, 2.52933, 10.7938
2.25796, 2.65267, 0.764769
3.25821, 2.55193, 0.0833717
4.58492, 2.87597, 0.639427
5.6079, 2.95485, 0.799048
6.74177, 2.60913, 0.13733
8.099, 2.63898, 0.196789
9.06502, 2.874, 0.604307
10.189, 2.90823, 0.48499
0.745031, 3.48995, 0.739483
1.49424, 4.49139, 0.379602
2.24797, 3.63698, 0.398747
3.33904, 3.16777, 0.946101
5.30224, 3.58078, 10.9064
6.61568, 3.8586, 1.10061
7.54499, 3.63237, 0.337109
8.58781, 2.96384, 1.55677
9.82549, 3.65189, 1.11657
10.7789, 3.67023, 0.197521
0.639804, 5.39886, 0.590156
1.7652, 5.4505, 0.0610142
2.55325, 5.07363, 0.550051
3.48051, 4.93445, 0.122799
4.5385, 5.0273, 0.81577
5.41227, 4.42833, 0.797073
7.22248, 4.49342, 10.7188
7.94502, 4.85928, 0.547771
9.37206, 4.76416, 10.8974
10.6949, 5.29759, 0.00422206
10.6976, 5.91523, 0.792978
2.11289, 6.29013, 0.62463
3.01935, 5.89493, 0.919244
4.2678, 5.90043, 0.267219
5.24947, 5.5624, 0.307831
5.72679, 6.73538, 10.8249
6.28369, 5.4928, 10.9377
8.07249, 6.00199, 0.773641
8.96221, 5.68147, 0.401953
9.97222, 6.10013, 0.013891
0.333652, 7.07257, 0.448658
2.60202, 7.23453, 0.45619
3.10626, 6.94336, 1.37795
3.49756, 6.81668, 0.264912
4.52161, 7.6215, 0.833965
5.4213, 7.63726, 0.254827
7.06239, 6.03666, 0.343364
7.86472, 6.93793, 0.414266
9.40756, 7.80132, 0.472431
10.4412, 7.79187, 0.611738
0.513961, 8.3854, 1.06615
1.52362, 8.17924, 0.668619
2.99948, 8.44167, 0.295788
3.80111, 7.7301, 10.7604
4.39146, 8.75221, 0.640797
5.3696, 8.7424, 0.406489
6.9848, 7.61111, 0.825418
7.65605, 8.0568, 0.203927
8.97091, 8.75275, 0.704301
9.96592, 8.71764, 0.424239
0.849938, 9.61516, 0.535101
1.27324, 9.02621, 1.73489
2.24763, 9.35435, 0.674784
3.95235, 9.9532, 10.5866
5.02445, 9.94595, 0.340446
5.93628, 9.56564, 0.0568056
6.83985, 8.63476, 0.658215
7.73379, 9.18873, 0.360858
9.46995, 9.69854, 0.799122
10.7784, 9.31091, 0.549127
0.54877, 10.6538, 0.936342
1.85147, 10.1927, 0.27125
2.60217, 0.098562, 1.29554
3.16013, 10.339, 0.538924
4.99028, 0.0698482, 0.452475
5.87157, 10.3681, 0.695841
6.84251, 9.75107, 0.465468
8.47212, 9.67989, 1.01209
8.99216, 10.6771, 0.784661
10.4588, 10.6159, 0.428784
0.641301, 0.798917, 1.21809
1.4963, 0.451861, 1.65775
3.29485, 1.01642, 1.23346
4.18205, 0.167504, 1.32689
4.94619, 0.879494, 1.95608
5.92205, 0.494981, 1.50765
7.33351, 0.117065, 1.49408
8.39263, 0.745164, 1.46178
9.62679, 1.14064, 1.29769
10.6181, 0.456583, 1.09528
0.403538, 2.23498, 1.88756
2.30007, 1.06537, 1.54016
3.03192, 1.99352, 1.08741
4.04042, 1.40825, 2.15197
4.54965, 1.91031, 1.34283
5.8807, 1.55178, 1.77457
6.94104, 1.21712, 1.38845
8.62321, 1.94966, 0.769468
9.35586, 2.29283, 1.6065
10.5476, 1.62816, 1.15055
0.696206, 3.19548, 2.11326
1.29215, 2.55264, 1.20315
2.91777, 2.96637, 1.89503
3.75634, 2.38495, 1.77781
4.78418, 2.88078, 1.71165
5.80444, 2.73301, 2.00356
6.64093, 2.47304, 1.18818
7.70345, 2.47766, 1.41027
9.6273, 3.28868, 2.13749
10.3191, 2.54804, 1.5146
0.663023, 4.44683, 1.39519
1.60635, 3.5625, 1.40868
1.93586, 3.46433, 2.42389
3.90965, 3.46113, 2.19713
4.4243, 3.96359, 1.10509
5.74672, 3.92847, 1.80413
7.52671, 3.53336, 1.44078
7.96197, 4.33739, 1.97722
8.98045, 3.9626, 1.62108
10.8855, 3.68303, 1.36216
0.918111, 5.26861, 1.98939
2.16872, 4.47836, 1.32964
3.3633, 4.21137, 1.23734
4.0406, 5.64608, 1.42348
4.94312, 4.66327, 1.72456
5.62031, 5.52649, 1.30277
6.59842, 5.08238, 0.872372
7.79022, 5.39714, 1.91893
9.37674, 4.79041, 1.033
10.2982, 4.56245, 1.34792
0.467646, 6.56229, 1.58329
1.48041, 5.39121, 1.16135
2.56325, 5.38672, 1.81079
4.04012, 6.6835, 1.09726
4.98837, 6.32135, 1.19213
5.6949, 6.40811, 2.41028
6.46045, 5.83927, 2.07899
8.00634, 6.42295, 1.7143
9.40902, 6.74983, 0.633523
10.4133, 5.51268, 1.71714
0.109727, 7.55789, 1.60518
1.42146, 7.03607, 1.23725
2.26944, 7.15641, 2.0206
3.35432, 7.15026, 2.35914
4.86089, 7.19545, 1.69601
6.1461, 7.06529, 0.802989
6.96034, 6.70793, 1.57807
8.37066, 7.50251, 1.10703
9.54466, 7.37632, 1.51095
10.3157, 6.81561, 1.10296
0.70732, 8.3344, 2.28441
1.59246, 7.89156, 1.75071
2.61232, 8.24284, 1.56982
3.53628, 7.84344, 1.17214
4.29129, 8.21688, 1.72881
5.514, 8.12524, 1.76512
6.78111, 7.98623, 1.7518
7.7374, 7.6037, 1.91289
9.50406, 8.73459, 1.71849
10.5165, 8.42694, 1.43482
0.0970795, 9.25982, 1.82094
2.38597, 9.4359, 1.78417
3.20424, 9.02473, 1.34975
4.32539, 9.91389, 1.93869
4.95685, 9.46481, 1.24851
6.03281, 9.30131, 1.12229
6.94236, 9.2198, 1.69276
8.0836, 8.67225, 1.55427
8.97592, 9.57378, 1.92085
10.1379, 9.66412, 2.11488
0.813615, 10.1307, 1.93562
1.85991, 10.3504, 1.29623
3.28324, 9.96973, 1.72148
4.0613, 9.87565, 0.88793
5.18146, 10.5638, 1.7003
6.36573, 10.3542, 1.65958
7.60195, 9.99832, 1.83626
8.08474, 10.8673, 2.19443
9.80476, 10.8417, 1.65992
10.6305, 10.1325, 1.32216
0.1891, 10.9161, 2.34052
1.07371, 0.386361, 2.64048
2.12739, 0.719426, 2.50746
3.68683, 0.867045, 3.02993
4.75718, 0.032816, 3.07138
5.99541, 0.399349, 2.53929
7.07136, 0.866771, 2.3422
8.4276, 0.984232, 2.4458
9.1331, 0.15005, 2.54121
10.2699, 0.53234, 3.01304
1.16308, 1.4653, 1.96674
2.02142, 1.58367, 3.05949
2.97506, 1.62296, 2.09505
4.23644, 1.61111, 3.47352
4.93784, 1.92174, 2.33184
6.09628, 1.40753, 2.8348
7.40689, 1.86905, 2.4646
8.34509, 1.96817, 2.03065
9.48626, 1.219, 2.4848
10.8894, 1.00263, 1.92059
0.444753, 2.38359, 2.90824
1.21503, 3.07458, 3.25853
1.72218, 2.3315, 2.35565
3.92616, 2.66291, 3.00665
4.95117, 3.32486, 2.87129
5.49256, 2.21162, 3.14761
6.94593, 2.77474, 2.18057
7.86743, 3.22338, 2.37103
9.13123, 2.46322, 2.68318
10.1885, 2.40526, 2.77375
0.0821151, 3.41172, 3.33
1.18026, 4.114, 2.31363
2.82758, 3.22939, 2.88126
4.2197, 4.14995, 2.97255
5.20819, 4.40903, 3.07478
6.11077, 3.57465, 2.89273
6.91137, 3.93982, 2.1463
7.878, 4.53678, 3.0051
8.80323, 3.8025, 2.63577
10.7953, 3.8713, 2.34845
0.375604, 4.50691, 3.02074
1.71171, 4.91235, 2.64825
2.87678, 4.06621, 2.11354
3.94814, 4.81086, 2.08787
5.31072, 5.47704, 2.85998
6.18792, 4.85247, 3.09918
7.02567, 5.204, 2.61884
8.67913, 5.00198, 2.57434
10.1227, 4.77078, 2.67485
10.7361, 5.58473, 3.384
0.116392, 6.15447, 2.51519
1.77288, 6.24082, 1.73978
2.13431, 5.60859, 3.27975
3.48961, 5.8588, 2.2362
4.18023, 6.59561, 2.17855
6.22442, 6.35707, 3.86619
7.37897, 6.17405, 2.49465
8.46584, 6.08051, 2.65416
9.16668, 5.67182, 1.51589
9.68961, 5.84789, 2.51818
1.10482, 7.33842, 2.5587
1.53118, 7.7666, 3.47019
2.42377, 6.4456, 2.81343
4.17391, 7.41796, 3.27026
5.10457, 7.36042, 2.66489
6.11308, 7.2815, 2.16041
7.03302, 7.20673, 2.5879
8.75631, 7.10245, 2.2854
10.0536, 6.80158, 2.24617
0.0751518, 7.27345, 2.66311
0.106806, 8.18981, 3.12804
2.10063, 8.14395, 2.7208
3.52136, 8.43637, 2.45581
4.54271, 8.31852, 2.78689
5.15451, 7.96266, 3.68282
6.17938, 8.55763, 2.75229
7.31192, 8.76466, 2.68731
8.01928, 7.93096, 2.90119
9.0369, 8.22498, 2.5425
9.99516, 7.96294, 2.7372
0.475276, 9.14577, 3.00693
1.34937, 9.59626, 2.68011
3.3893, 9.52699, 2.62048
4.34087, 9.48837, 2.96611
5.18968, 8.97707, 2.26579
6.0206, 9.57641, 2.19021
7.30616, 9.74535, 2.94922
8.19106, 9.20881, 2.47536
9.35355, 9.12876, 3.0763
10.3863, 8.92931, 2.80851
1.14972, 10.2169, 3.45751
2.09362, 10.4219, 2.36096
2.99041, 0.233594, 2.27358
4.03995, 0.13099, 2.37436
5.20308, 10.1469, 2.6365
6.76946, 10.8686, 3.0101
7.59426, 0.575895, 3.3443
8.72769, 10.1834, 2.80279
9.94513, 10.495, 2.69474
10.8486, 10.0643, 2.87314
0.387344, 0.755957, 3.36915
1.86606, 0.716696, 3.90037
2.72245, 0.859744, 3.37422
3.78073, 0.192264, 3.78036
5.28176, 0.473947, 4.37909
6.14837, 0.944979, 3.92293
6.96268, 0.317652, 4.16664
7.94239, 0.875878, 4.32292
9.01723, 1.12609, 4.14917
10.6026, 0.696128, 4.07379
0.203838, 1.78053, 3.86175
1.20408, 1.58541, 3.9907
2.95636, 2.10422, 3.28917
4.33321, 0.925382, 4.19822
5.17623, 1.10236, 3.56668
6.21219, 2.00501, 3.89752
7.08652, 1.31301, 3.8842
8.28138, 1.38355, 3.41458
9.48533, 1.84168, 3.4456
10.6793, 1.43823, 2.86175
0.74864, 2.75968, 4.18026
2.15099, 2.33478, 4.01239
2.12044, 3.3534, 3.6448
3.71847, 2.26921, 4.03813
4.96193, 3.05222, 3.8425
5.98629, 2.98903, 4.00772
7.32029, 2.82319, 3.2713
8.40398, 2.43527, 3.38692
9.23378, 3.18365, 3.50431
10.3759, 2.48548, 3.79172
0.723667, 4.15271, 3.93186
2.23991, 4.46155, 4.67151
3.18225, 4.12685, 3.91365
3.87197, 3.33194, 3.90979
4.54991, 4.13406, 3.93423
6.80315, 3.81993, 4.14307
7.05349, 3.87677, 3.15586
8.26893, 3.51081, 3.65409
10.1225, 3.92205, 3.30332
10.7497, 3.56873, 4.56289
10.7627, 4.65886, 3.86102
2.3047, 4.37789, 3.31359
2.79788, 5.24512, 3.96299
3.28305, 4.61595, 2.92708
4.75322, 5.15006, 3.9366
6.11629, 5.26957, 4.37815
7.15012, 4.85071, 3.67735
7.85513, 4.16982, 4.31275
9.88347, 5.15782, 3.70638
10.1232, 5.23467, 4.73093
1.00701, 5.30021, 3.50634
1.18504, 6.19742, 2.62618
2.66353, 6.23358, 3.88301
3.79358, 5.69574, 3.38729
4.73533, 6.28645, 3.04978
5.1425, 6.68159, 4.04906
7.19772, 5.8584, 3.45852
8.35371, 5.58278, 3.57083
9.35149, 6.02714, 3.53588
10.2647, 6.42983, 3.6858
0.766666, 7.114, 3.48302
2.09833, 7.07068, 4.43437
2.42344, 7.30676, 3.50138
3.35635, 7.05235, 4.30434
4.20437, 7.71034, 4.49964
6.15365, 7.33041, 3.2785
7.44129, 6.88919, 3.69556
8.46468, 6.65285, 3.69739
9.32792, 7.33317, 3.30346
10.7251, 7.46483, 3.77271
0.636522, 8.2101, 4.06242
2.06091, 8.30379, 4.20472
3.23774, 8.14096, 4.3416
4.0306, 8.34015, 3.65309
4.89543, 9.0714, 4.09026
6.07147, 8.135, 4.12054
6.95346, 8.0003, 3.28345
7.77483, 8.634, 3.95202
8.98081, 8.25435, 3.63721
9.97881, 8.20831, 3.88389
0.917465, 9.57436, 4.28676
1.48241, 8.97155, 3.68419
2.30394, 9.2781, 3.06597
3.04525, 8.61801, 3.31855
5.53212, 9.29241, 3.17197
6.81681, 8.96969, 3.54591
6.6807, 8.79375, 4.56304
8.03753, 9.99146, 3.7791
9.56618, 10.016, 3.90782
10.3998, 9.07499, 4.18107
0.448905, 10.6965, 4.00222
2.26834, 10.8274, 3.3801
2.67046, 10.7056, 4.49016
3.2167, 10.4612, 3.21308
4.3711, 10.2152, 3.67272
5.8512, 10.5563, 3.68949
6.96258, 10.0524, 4.12108
8.5893, 10.8363, 3.67087
9.55864, 0.263153, 3.7291
10.3969, 10.6149, 3.60079
0.476058, 0.999776, 4.67282
1.29167, 0.0935781, 4.43761
3.45727, 10.7244, 5.49998
3.38705, 0.633993, 4.87661
4.68376, 1.46823, 5.33318
6.23209, 1.12608, 5.69556
7.47184, 0.154953, 5.30298
7.97412, 10.6331, 4.55937
8.79, 0.704987, 5.03277
9.78982, 0.889462, 4.8089
10.9256, 1.93228, 5.4481
2.34766, 0.488003, 5.15955
2.95348, 1.51063, 4.26003
3.53911, 1.73817, 5.18446
4.78268, 1.83658, 4.28448
5.82208, 1.57674, 4.77701
6.93799, 1.24312, 4.91556
7.9173, 1.9334, 4.1725
8.92358, 1.91736, 4.90651
9.89605, 1.98913, 4.63354
1.42051, 2.20906, 4.96891
2.10854, 3.06667, 6.12076
2.94196, 3.02933, 4.1637
4.1602, 2.70354, 4.94243
5.36614, 3.07474, 4.82095
6.56317, 2.56964, 4.82865
7.16792, 3.07607, 5.83747
8.3677, 2.89049, 4.45534
9.60722, 3.26866, 5.11874
0.621871, 2.84471, 5.24801
0.736928, 3.85265, 5.20449
2.13511, 2.96376, 4.89829
2.81346, 3.78116, 5.68541
4.54022, 3.73364, 4.95562
5.42727, 4.4176, 4.44516
6.18251, 3.76091, 5.12346
7.55289, 3.35041, 4.84013
8.70899, 3.85084, 4.92481
8.9311, 4.56707, 3.64566
9.59018, 4.03711, 4.30866
0.587548, 5.63002, 4.57595
1.23725, 4.67684, 4.77468
3.51938, 4.28653, 4.88352
3.786, 5.0893, 4.28782
4.47787, 5.16298, 5.11838
5.48844, 4.82878, 5.38456
7.07404, 4.57473, 5.10487
7.98492, 5.22644, 4.64988
9.17957, 4.82269, 5.14264
0.230621, 4.76408, 4.98837
0.0974513, 6.51159, 4.3233
1.52015, 5.91356, 4.14848
2.32799, 5.7702, 5.04064
3.32046, 5.7706, 4.8925
4.32455, 6.7202, 4.80953
7.02833, 5.72179, 4.51185
7.53385, 5.72249, 5.5333
8.15508, 6.22836, 4.58734
9.08541, 5.58068, 4.39485
10.034, 6.49667, 4.68222
0.154639, 7.46578, 4.83292
1.09368, 6.64669, 5.21244
2.79651, 6.65733, 5.12109
3.40416, 7.55231, 5.23794
5.08595, 7.41143, 4.97568
6.2937, 7.81673, 5.12863
6.59898, 6.85572, 4.82761
8.18443, 7.63054, 4.19222
9.05829, 7.06801, 4.51066
9.66476, 7.72581, 5.08363
0.585541, 8.71119, 5.18597
1.29105, 7.7972, 4.90079
2.45703, 7.92127, 5.11644
3.50924, 9.13004, 4.88087
4.71167, 8.60614, 5.55262
5.65601, 8.88335, 5.09574
7.1904, 7.87887, 4.53346
8.56302, 7.58795, 5.40735
9.08385, 8.63555, 4.73045
10.4532, 8.64963, 5.1628
1.18845, 10.0225, 5.20791
1.75909, 8.89026, 5.07994
2.61544, 9.15451, 4.19506
4.31369, 9.84107, 5.20301
5.24772, 9.9922, 4.71844
5.96083, 9.45235, 4.08494
7.29876, 8.98761, 5.4662
8.79264, 9.21355, 3.91551
9.69153, 9.47818, 5.03267
10.655, 9.63468, 5.25144
0.456864, 10.6889, 5.00716
1.93529, 9.99087, 4.15353
2.59543, 9.83305, 5.27212
3.59412, 10.202, 4.60006
4.56857, 10.8048, 4.85572
6.17491, 10.6985, 4.73158
6.27351, 9.80971, 5.35256
7.8565, 9.4094, 4.58192
9.24425, 10.7, 4.5856
10.2286, 10.6623, 4.79154
1.21836, 1.07902, 5.376
1.9228, 0.346461, 6.24672
2.49334, 1.25755, 5.87256
3.77249, 0.896316, 5.96503
5.10882, 0.718547, 5.95729
5.88723, 1.19495, 6.88836
7.09589, 0.777547, 6.14227
8.05531, 1.13205, 5.71189
9.35464, 0.381446, 5.82255
10.4299, 1.04233, 5.58767
0.533412, 0.796658, 6.05302
1.1382, 1.70041, 6.31826
2.37011, 1.90794, 5.07931
3.6422, 2.0583, 6.16759
4.92875, 2.46731, 5.578
5.92705, 2.12411, 5.91116
6.99719, 1.7977, 6.01355
7.61449, 2.03155, 5.13551
9.53208, 1.48288, 6.19305
10.5334, 1.94842, 6.48083
0.720254, 2.89744, 6.39357
1.91481, 2.56803, 7.07428
3.03283, 2.761, 5.50476
4.30044, 3.28948, 5.93348
5.23738, 2.72118, 6.57286
6.20191, 3.20998, 6.07581
7.15954, 2.62357, 6.82663
8.66484, 2.82682, 5.46492
9.70861, 2.28668, 5.59462
10.6371, 3.09559, 5.69611
0.292905, 3.82706, 6.17899
1.4173, 3.89466, 6.15511
2.43311, 3.79773, 6.83911
4.03255, 4.34606, 5.90934
5.26478, 3.57318, 5.87874
6.02494, 4.19989, 6.12865
7.01685, 4.0636, 5.98205
8.06496, 4.08848, 6.32911
9.09059, 3.71787, 5.85929
10.2138, 4.20595, 5.22301
0.937696, 4.94899, 5.97421
1.39292, 5.6973, 5.39586
2.40661, 4.63794, 6.28303
2.96283, 4.93383, 5.49327
5.36951, 5.78275, 5.84504
6.56445, 5.05149, 5.8616
7.46953, 4.89564, 6.40756
8.07067, 4.74242, 5.54543
9.21854, 5.39131, 6.25337
10.2375, 5.06105, 6.33104
0.251325, 5.99041, 5.52226
1.39147, 6.38186, 6.26686
2.36103, 6.06543, 6.09334
3.81961, 5.32292, 5.95142
5.23975, 5.9994, 4.87549
6.31318, 5.9063, 5.21142
7.69504, 5.92383, 6.61612
8.47819, 6.56502, 6.1025
9.0274, 6.00944, 5.46064
10.0814, 5.87615, 5.53015
0.504287, 7.04483, 6.04324
1.80992, 7.21939, 5.70033
2.95963, 7.43336, 6.18266
3.71589, 6.51189, 5.85372
4.75451, 6.67689, 5.78322
5.78964, 6.92508, 5.53664
7.18172, 6.96123, 6.46967
7.70182, 6.71853, 5.46146
9.47686, 7.07543, 5.88982
10.5468, 6.81525, 5.56603
10.643, 7.08904, 6.69007
1.06872, 7.97795, 6.26091
2.16669, 8.21173, 6.09539
4.24742, 7.91268, 6.14763
5.35516, 7.69947, 6.29591
6.39698, 8.92174, 5.92373
7.23916, 7.72995, 5.76284
8.15755, 8.45117, 5.81602
9.56742, 8.01391, 6.28273
10.7353, 7.79759, 5.74757
0.439355, 8.77909, 6.25546
1.5031, 9.00486, 6.42328
3.06502, 8.93034, 5.9621
3.75167, 9.70861, 6.06765
5.38761, 8.67511, 6.53663
5.39257, 9.5735, 6.00923
6.97551, 9.77675, 6.2294
8.41448, 9.41269, 5.62049
9.09953, 9.03342, 6.43767
10.0928, 9.01922, 6.05526
0.363989, 10.4877, 6.113
1.26631, 0.065515, 5.53749
2.84317, 10.3994, 6.28585
4.31083, 10.8685, 6.1788
5.27827, 10.6823, 5.65476
6.08364, 0.225962, 6.18466
7.45477, 10.0322, 5.32753
8.46565, 10.723, 5.67326
9.41359, 10.0084, 5.97204
10.2599, 10.7251, 5.90091
0.278918, 1.15367, 7.05061
1.05557, 0.148664, 6.84071
2.81663, 0.548712, 6.78501
4.23069, 0.286572, 7.26265
5.25003, 0.246458, 7.06611
6.47245, 0.311397, 7.25539
7.88423, 0.904336, 7.34881
8.82698, 0.0596361, 6.84442
9.66867, 0.197555, 7.58684
10.2681, 0.875988, 6.72352
0.463229, 2.17096, 7.09884
1.89742, 1.3589, 6.94401
2.6767, 1.98022, 6.64294
3.61239, 1.09663, 7.20195
4.86212, 1.7835, 6.33587
6.18545, 1.32974, 7.86926
6.90313, 1.35052, 7.07973
8.72916, 1.96989, 6.94623
8.80246, 1.16707, 8.08062
9.69829, 1.52889, 7.43586
0.674041, 3.38706, 7.27987
1.11733, 2.70764, 7.93744
3.26333, 2.43425, 7.53779
3.23122, 3.16426, 6.67199
4.19769, 2.25139, 7.03744
6.21411, 2.12281, 7.25786
6.87707, 3.32062, 7.67563
8.24689, 3.0358, 6.41875
9.64785, 3.02155, 6.31462
10.5704, 2.95311, 6.82083
0.581648, 4.44066, 6.97348
1.69195, 3.45513, 7.53077
3.07262, 4.23489, 7.7084
4.07125, 4.25919, 7.56971
4.6015, 3.35024, 7.03844
5.73691, 3.68303, 7.01081
7.08812, 4.25508, 7.27742
7.99978, 3.1856, 7.55275
9.17579, 3.88678, 6.8861
10.127, 4.01908, 6.43809
10.8242, 5.09744, 7.32347
1.53151, 4.69736, 6.7662
3.42703, 4.37879, 6.72066
4.28215, 5.05557, 6.89118
5.16426, 4.43574, 6.66237
6.05715, 4.85055, 7.09852
6.89181, 5.91584, 7.37119
8.08687, 4.81821, 7.32318
9.0815, 4.91565, 7.18916
9.90501, 4.48876, 7.62142
0.732161, 5.75427, 6.70394
2.09704, 5.54982, 6.96895
3.26824, 5.35203, 6.99929
4.14824, 6.30885, 6.74364
5.23261, 5.40976, 6.90886
6.2926, 6.03046, 6.4449
8.20949, 6.5485, 7.28738
8.55174, 5.64769, 7.69791
9.82813, 5.97429, 6.95871
10.6381, 6.13246, 6.35489
0.774873, 6.98097, 7.09354
1.60228, 7.72964, 7.53609
2.12061, 7.03682, 6.67428
3.83529, 7.34917, 6.88645
5.41098, 6.82855, 6.7869
5.99136, 7.27066, 7.52369
6.98617, 7.47313, 7.34794
8.15406, 7.51662, 6.37412
9.45199, 7.10852, 6.9817
10.5762, 7.64108, 7.65796
0.620555, 8.01032, 7.20736
2.14999, 8.75793, 7.61272
2.77102, 8.2583, 6.91874
3.68459, 8.65133, 6.77485
4.83476, 7.78806, 7.41118
6.28071, 8.18259, 6.73399
7.16489, 8.6841, 6.77616
7.98592, 8.3841, 7.50348
8.8625, 8.17893, 7.02402
10.5531, 8.41652, 6.99722
0.480434, 9.2655, 7.13308
1.69217, 9.87463, 7.45508
2.48735, 9.38543, 6.83117
3.15966, 9.03864, 7.55487
4.6774, 8.82068, 7.3351
5.40425, 9.53416, 7.06623
7.53175, 9.66388, 7.17163
8.10491, 9.05825, 6.61339
9.27627, 9.30039, 7.43373
10.5927, 9.7472, 6.5618
0.53088, 10.3896, 7.40684
1.81928, 10.3157, 6.49026
2.36876, 10.6464, 7.39588
3.28702, 10.1572, 7.29638
4.62978, 10.321, 7.0279
6.1058, 10.1681, 6.62341
7.28945, 10.8524, 6.74128
8.08427, 10.1653, 6.43187
9.56265, 10.2983, 6.99108
10.6434, 0.0422144, 7.15387
0.561404, 0.386878, 7.96923
2.00666, 0.397715, 8.45108
2.81849, 1.30376, 7.81151
3.87194, 0.715509, 8.11485
4.98948, 0.230089, 8.22622
5.98814, 0.429904, 8.32428
7.084, 0.760275, 7.95112
8.42125, 10.7037, 8.12265
9.31483, 0.0509983, 8.77982
10.762, 10.5743, 8.27772
0.136888, 1.66831, 8.01784
1.18639, 1.23303, 7.97695
2.0646, 2.0108, 7.97359
4.0053, 1.83118, 8.18991
4.7718, 1.38609, 7.30096
5.48207, 2.33201, 9.13966
7.0603, 1.78157, 8.49135
7.79576, 1.93766, 7.49713
9.8165, 1.45979, 8.66881
10.4383, 0.709059, 8.40295
10.8847, 2.89732, 8.21637
0.756041, 2.60524, 8.90381
1.87184, 2.86578, 8.61764
3.77109, 3.28516, 7.77643
5.00888, 2.26007, 7.73456
5.92871, 2.59436, 8.18932
7.41211, 2.70645, 8.26357
8.94534, 2.15432, 7.97993
9.40645, 2.98665, 7.39648
10.1592, 2.33122, 7.82031
0.712405, 3.62003, 8.62127
1.90956, 4.26693, 8.5187
2.89576, 3.85679, 8.92182
4.18222, 4.42431, 8.72932
4.81675, 3.23768, 8.40225
5.97978, 3.66589, 8.20514
7.76185, 4.32073, 8.16889
8.43988, 3.98282, 8.94959
8.82812, 3.59118, 7.96475
0.00994649, 3.98819, 7.7438
1.02307, 5.18996, 7.53008
1.63234, 5.38233, 8.53734
2.16693, 4.73744, 7.59512
3.52416, 5.08097, 8.31809
5.06811, 4.66002, 8.01203
5.62014, 5.26123, 8.62284
7.11765, 5.21138, 8.13472
8.18269, 5.39542, 8.74474
9.04489, 4.56068, 8.372
10.6664, 4.44112, 8.59312
10.8984, 5.61964, 8.22521
1.22121, 6.2109, 7.56772
2.21905, 6.25641, 7.74089
3.14121, 6.51794, 6.77129
4.47531, 5.72287, 7.87315
5.58836, 5.92464, 7.86178
6.51866, 6.3791, 8.1866
7.52393, 6.18518, 8.24089
9.20676, 6.45529, 8.09137
9.8392, 5.41038, 8.27166
0.519447, 6.76696, 8.05202
1.51828, 7.03015, 8.24657
2.86078, 7.07988, 7.8311
3.85291, 7.87526, 7.8249
5.07068, 6.85915, 7.8118
4.43683, 6.50644, 8.52399
6.60201, 7.45628, 8.34789
8.19661, 7.41911, 7.90862
8.9176, 7.22883, 8.88642
10.2361, 6.5316, 7.7773
0.628809, 7.57917, 8.73514
1.6111, 8.82131, 8.49581
2.878, 8.12184, 7.93499
3.57753, 8.84408, 8.55577
4.4914, 8.35459, 8.4658
6.02031, 8.41234, 8.15805
7.08223, 8.31715, 7.959
8.4643, 8.27838, 8.61687
9.46152, 7.77314, 7.94904
10.5666, 7.94233, 8.62251
0.555961, 8.71784, 8.05973
1.10197, 9.80528, 8.44731
2.74446, 9.24453, 8.96767
3.95515, 9.62212, 7.92731
5.40541, 9.20801, 8.02592
6.36959, 9.2133, 7.25555
6.99578, 9.33157, 8.21992
8.10817, 9.36077, 8.02584
9.45841, 8.93416, 8.70402
10.3584, 8.80004, 7.90973
0.184928, 9.65718, 8.04785
1.37372, 10.6843, 7.99295
2.35626, 9.93823, 8.27026
3.50549, 10.7567, 8.36545
5.32169, 10.3068, 7.8265
6.34276, 10.1345, 7.68214
7.28167, 10.5865, 7.83357
8.54054, 9.99183, 7.34455
9.16344, 9.94606, 8.658
10.1047, 9.79777, 8.18388
0.550322, 0.159727, 8.95712
1.25537, 0.740637, 9.46784
2.78177, 0.249173, 9.14855
3.85812, 0.124825, 9.55301
4.89004, 0.420031, 9.30596
6.18581, 1.54899, 9.02838
6.95876, 0.438763, 8.95994
8.81356, 1.11017, 9.27221
9.52957, 0.66925, 9.93989
10.5892, 0.448818, 9.44654
10.8931, 1.47027, 9.02509
1.61032, 1.97245, 9.02247
2.68407, 1.69518, 9.10564
3.6542, 1.35111, 9.06182
4.94727, 1.44296, 8.58309
5.97563, 1.77551, 10.0135
7.18338, 1.30765, 9.41661
7.9683, 0.732559, 8.73889
9.0055, 2.19625, 9.35509
10.2176, 1.58989, 9.76436
10.7052, 3.41792, 9.43225
2.60586, 2.78504, 9.60086
3.24092, 2.78686, 8.74551
4.38608, 2.49433, 8.96224
5.55002, 3.40397, 9.30337
6.53041, 3.35058, 9.91248
6.63472, 2.52887, 9.08444
7.95435, 1.82813, 8.97046
8.69934, 2.91333, 8.70286
9.86581, 2.4923, 8.93715
0.551922, 3.79635, 10.0606
2.0125, 3.82232, 9.4414
3.00693, 3.8105, 9.99966
3.94371, 3.42791, 9.18401
5.21308, 4.55011, 9.6777
6.34845, 4.36752, 9.20034
7.22559, 3.42206, 8.95936
8.43578, 3.2278, 9.90014
9.57888, 3.19693, 9.61079
10.0311, 3.5477, 8.34025
0.769261, 5.03243, 8.96208
1.37086, 4.50667, 9.89484
2.60335, 4.96168, 8.95948
3.85225, 4.45144, 9.67518
4.44511, 5.33282, 9.1263
6.50364, 5.55686, 8.98833
7.50413, 5.03053, 9.40112
8.48291, 5.17375, 9.83091
9.8128, 4.21495, 9.2559
10.6928, 4.73195, 9.58878
0.272998, 5.84613, 9.42925
1.02405, 6.26206, 8.86303
2.24471, 6.06082, 9.01545
3.55311, 6.0899, 9.48928
4.48374, 6.51676, 9.58214
6.25187, 6.55384, 9.18999
7.37881, 6.41835, 9.43222
8.50378, 6.15275, 9.45958
9.30588, 5.57011, 9.1535
10.2879, 6.03858, 9.02974
0.748052, 6.74315, 9.70737
1.78646, 7.25774, 9.70507
2.59108, 7.07462, 9.0614
3.44394, 6.66975, 8.65988
4.75299, 7.50899, 9.33264
5.60538, 7.51784, 8.68128
6.84779, 7.3103, 9.71824
7.86005, 7.13916, 8.8883
10.3298, 6.76771, 9.75837
9.99089, 6.97625, 8.72299
0.775912, 7.96833, 9.69289
1.7176, 8.61244, 9.54405
2.63095, 8.21758, 8.96118
3.61256, 7.64279, 8.93088
5.26188, 8.61374, 9.11975
6.49417, 8.09251, 9.18296
7.81144, 7.97513, 9.60232
8.80941, 8.29759, 9.57511
9.63151, 7.88026, 9.14948
10.6042, 7.73748, 9.62115
10.5259, 8.72868, 9.25214
0.524439, 9.116, 9.0612
1.98653, 9.66539, 9.65277
3.46071, 8.58851, 9.54433
4.35064, 9.19323, 9.47339
6.1738, 9.58232, 9.05427
7.31009, 8.89243, 9.2389
8.36179, 9.31835, 9.08265
9.19479, 9.356, 9.67907
10.5792, 9.66673, 9.68539
0.487052, 10.1112, 9.34741
1.43381, 10.4562, 9.18713
3.64668, 9.79597, 8.86636
4.63035, 10.1317, 8.73773
5.7386, 9.46429, 9.96359
5.57497, 10.6092, 8.86013
6.66279, 10.4298, 8.77664
7.73173, 10.159, 8.77022
8.76233, 10.3121, 9.7517
9.76801, 10.4634, 9.54432
0.54312, 0.258104, 10.078
1.63911, 0.322536, 10.49
2.33144, 0.94237, 9.7424
3.20904, 0.668811, 10.1757
4.45987, 0.457016, 10.4763
6.02873, 0.513281, 9.45805
6.84915, 0.586717, 10.1413
8.00052, 0.0897078, 9.70716
8.4591, 0.141668, 10.7112
10.4609, 0.0898813, 10.3888
0.365158, 1.23921, 10.3858
1.40656, 1.49466, 10.4184
2.27833, 1.9308, 10.0976
3.97505, 1.42095, 10.5222
4.75252, 1.37034, 9.81558
5.76389, 1.00045, 10.6704
7.46771, 1.79329, 10.2813
8.28489, 1.19159, 10.1355
9.59361, 1.55674, 10.5513
0.239438, 2.29808, 9.78188
0.539732, 2.9964, 10.7882
1.322, 2.61531, 9.76816
2.40293, 2.98583, 10.5792
3.63986, 2.40897, 9.65238
4.57297, 2.34234, 10.2215
5.66277, 2.46681, 10.815
7.51001, 2.92149, 10.2731
8.52439, 2.27963, 10.2483
9.52451, 2.58529, 10.6087
10.535, 3.02358, 10.3666
0.566701, 4.43852, 10.8979
1.50519, 3.5835, 10.5305
3.22592, 3.95001, 0.226111
4.03501, 3.172, 10.718
4.69494, 3.50573, 10.0373
6.46209, 3.87471, 0.0717377
7.73698, 4.02722, 9.88001
8.59178, 3.84054, 0.545399
9.4647, 3.5961, 10.7743
10.3378, 4.41519, 10.5135
0.7332, 5.26734, 10.2407
2.33215, 4.61403, 10.5259
2.92395, 5.18487, 9.94569
4.22951, 4.17098, 10.8158
5.66361, 4.73098, 10.6361
6.62974, 4.97491, 10.0454
7.54814, 5.55601, 10.5305
8.29643, 4.51026, 10.5909
9.00029, 4.09451, 9.82911
9.5805, 4.97835, 9.91863
0.358612, 6.23199, 10.4986
1.73863, 5.73809, 10.0299
2.93453, 6.01031, 10.841
4.09323, 5.35083, 10.1572
4.90651, 6.17314, 10.4361
5.37742, 5.64468, 9.51928
6.5269, 6.2204, 10.2217
8.4155, 6.0557, 10.509
9.33519, 6.15528, 10.0716
10.3471, 5.70549, 10.074
0.337552, 7.44659, 10.4361
1.14219, 6.88633, 10.7487
2.19338, 6.62978, 10.4861
3.51856, 7.06058, 9.98378
4.73838, 7.26321, 10.4551
5.48063, 6.8681, 9.84398
6.70312, 7.13899, 10.8206
7.94147, 7.25194, 10.2989
8.87914, 6.96658, 10.7328
10.4087, 7.06893, 10.7706
0.220622, 8.52286, 0.0420906
1.37874, 7.83843, 10.5424
2.29202, 8.76943, 10.5917
2.67611, 7.72317, 10.3683
4.57004, 8.32534, 10.1611
5.64218, 8.21888, 10.3834
6.76061, 8.18123, 10.5927
8.66538, 8.05917, 10.5739
9.617, 7.51622, 10.2651
10.3525, 8.35482, 10.3949
0.474314, 9.24864, 10.09
1.41652, 9.41263, 10.6358
2.60192, 9.88807, 10.5381
3.6625, 8.90291, 10.5529
4.66216, 9.22027, 10.6856
6.20658, 10.3835, 9.73766
6.86443, 9.43457, 10.1094
8.1375, 9.03901, 10.1434
9.38461, 8.91243, 10.5633
10.0241, 9.78322, 10.7533
0.13062, 10.1597, 10.6233
1.06162, 10.317, 10.2022
2.44815, 10.6823, 9.9453
3.34026, 10.2184, 9.77523
4.75478, 10.4378, 10.0369
5.59316, 10.9233, 10.5503
6.67536, 10.5543, 10.6369
7.72614, 10.135, 10.2713
8.65926, 10.0054, 10.8453
9.44824, 10.8672, 10.8442
1000

0.52768, 0.264608, 0.080728
1.4967, 0.303052, 0.637242
2.57241, 0.457529, 0.291285
3.75077, 0.137455, 0.514619
4.82996, 1.04929, 0.50928
5.97177, 0.397252, 0.323927
7.09795, 0.648164, 0.261138
7.58776, 10.6592, 0.397491
9.08566, 0.671994, 0.386771
10.5319, 1.03333, 10.9385
0.808384, 1.38647, 0.280472
1.81025, 1.40817, 0.47582
2.65165, 1.58966, 10.8553
4.00664, 1.86285, 0.691109
4.70391, 1.97584, 10.7829
5.56062, 1.8668, 0.721991
6.92475, 1.66213, 0.513789
7.84978, 0.955599, 0.882742
9.71495, 1.88497, 0.587488
10.4052, 2.08576, 10.7807
0.294828, 2.61866, 0.892149
1.41654, 2.85004, 10.9268
2.14192, 2.58229, 0.710744
3.44167, 2.46753, 0.0394833
4.6006, 2.66588, 0.586143
5.55118, 2.87419, 1.10613
6.71619, 2.58293, 10.8467
8.20638, 2.33641, 0.227437
9.055, 2.90836, 0.397602
10.2279, 2.88736, 0.519412
1.00802, 3.54513, 0.640273
1.50597, 4.52484, 0.485915
2.29373, 3.86888, 0.550296
3.42161, 3.15154, 0.953215
5.29464, 3.60885, 0.20322
6.43865, 3.97791, 0.962282
7.74, 3.62178, 0.0981517
8.5573, 3.15525, 1.30828
9.63404, 3.47822, 1.07064
10.5694, 3.77725, 0.166122
0.752062, 5.69693, 0.803475
1.59785, 5.46798, 0.0891815
2.61011, 5.26816, 0.467532
3.62217, 4.84401, 0.00651684
4.72431, 4.97999, 0.763251
5.50447, 4.40188, 1.01856
6.99946, 4.80031, 10.8045
7.72214, 4.96978, 0.72035
9.42919, 4.80581, 0.0947632
10.4612, 5.0066, 10.8759
10.7026, 6.08859, 0.639216
2.28325, 6.36805, 0.550218
3.2097, 6.01426, 0.899789
4.20296, 5.78794, 0.389124
5.28989, 5.6324, 0.23673
5.544, 6.66212, 0.0665613
6.46999, 5.59107, 0.18042
8.09096, 5.85768, 1.03847
8.94366, 5.62346, 0.481908
9.7526, 6.14094, 0.0691501
0.403433, 6.938, 0.683486
2.2687, 7.61212, 0.281908
2.94783, 6.92842, 1.30054
3.71656, 6.68362, 0.135724
4.49306, 7.71969, 0.762628
5.49776, 7.58929, 0.551854
6.99518, 6.21493, 0.811538
7.81469, 6.86024, 0.574169
9.54696, 7.87236, 0.315636
10.5748, 7.82892, 0.61869
0.630665, 8.4787, 1.19382
1.48406, 8.11657, 0.723664
2.96848, 8.43481, 0.444174
3.60691, 7.80784, 10.881
4.20136, 8.67125, 0.587343
5.33127, 8.59479, 0.403944
6.72095, 7.50519, 0.822355
7.62906, 8.0063, 0.466586
8.73716, 8.49994, 0.572764
9.7807, 8.91376, 0.399
0.985861, 9.42315, 0.508844
1.28843, 9.18611, 1.68613
2.13786, 8.99893, 0.666742
3.79916, 10.1002, 10.7276
5.03368, 9.9228, 0.150191
5.97859, 9.31438, 0.0387386
6.7417, 8.48342, 0.581402
7.62857, 9.01452, 0.353224
9.64059, 9.87915, 0.69046
10.8773, 9.64068, 0.789855
0.724152, 10.3839, 0.692893
1.75219, 10.3639, 0.162393
2.86294, 0.0683337, 1.32705
3.25264, 10.1879, 0.676369
4.8585, 10.9334, 0.0746854
5.94723, 10.3717, 0.688488
6.92302, 9.84805, 0.284842
8.37954, 9.69978, 1.01917
9.12697, 10.4798, 1.3198
10.2856, 10.6194, 0.382625
0.468031, 0.884678, 1.17665
1.56739, 0.411399, 1.64831
3.49147, 1.07917, 1.08206
4.09778, 0.176241, 1.49236
4.95062, 0.724724, 1.97312
6.14486, 0.435527, 1.71121
7.30151, 0.0937719, 1.42691
8.28067, 0.299009, 1.51647
9.50381, 1.17643, 1.45478
10.4415, 0.663397, 0.951192
0.491367, 2.01803, 1.68091
2.39107, 0.993359, 1.57137
2.91518, 1.89902, 0.860483
3.99851, 1.33771, 2.13211
4.76422, 1.80391, 1.46499
5.71563, 1.50978, 1.73676
6.83914, 1.51977, 1.61522
8.72154, 1.75365, 0.995276
9.39129, 2.44049, 1.40258
10.7046, 1.69584, 0.929234
0.754631, 2.91094, 2.15307
1.32776, 2.45132, 1.28156
2.6408, 2.52412, 1.77849
3.93321, 2.42629, 1.79342
4.87061, 2.86908, 1.84695
5.87814, 2.6702, 2.04253
6.76516, 2.6305, 1.1303
7.67396, 2.27957, 1.38931
9.82507, 3.35079, 2.10448
10.3973, 2.54843, 1.59744
0.676778, 4.44947, 1.41538
1.6636, 3.50961, 1.39915
1.83832, 3.59301, 2.41854
4.05803, 3.59018, 2.4082
4.55226, 3.8039, 1.03888
5.71622, 3.71075, 1.74162
7.57392, 3.53378, 1.30387
8.06184, 4.58988, 1.6478
9.05474, 3.94081, 1.8389
0.0207341, 3.57757, 1.09686
0.562436, 5.43016, 1.98572
2.31688, 4.5808, 1.42623
3.60848, 4.33882, 1.26186
4.12461, 5.73565, 1.61082
5.20101, 4.52473, 2.04394
5.4998, 5.41534, 1.23874
6.71653, 4.94273, 1.1588
7.83858, 5.53166, 2.00055
9.25349, 4.89965, 1.21209
10.2732, 4.94186, 1.06849
0.533565, 6.39386, 1.62648
1.42372, 5.26838, 1.45636
2.49883, 5.7412, 1.60827
3.95953, 6.66297, 1.11264
4.99308, 6.29734, 1.29015
5.73539, 6.28358, 2.90067
6.28071, 5.5208, 2.23129
8.22059, 6.58383, 1.73677
9.62749, 6.90397, 0.722137
10.5632, 5.79533, 1.7252
0.208054, 7.36648, 1.59995
1.39953, 7.03516, 0.925104
2.11173, 7.32829, 1.87507
3.01293, 7.24812, 2.38167
4.91763, 7.30743, 1.60129
6.01539, 6.81965, 1.08295
7.10119, 6.84611, 1.6605
8.54337, 7.71716, 1.27417
9.71158, 7.47947, 1.55397
10.3716, 6.71691, 1.3656
0.528879, 8.21271, 2.35511
1.36668, 8.04779, 1.7502
2.70793, 8.29223, 1.90391
3.63631, 7.76985, 1.38986
4.29593, 8.55573, 1.64274
5.538, 8.3877, 1.52524
6.57453, 8.20303, 1.79359
7.8118, 8.06353, 2.10472
9.60601, 8.43878, 1.86326
10.5883, 8.59925, 1.38698
0.258705, 9.21825, 1.95595
2.40712, 9.36061, 1.93293
3.21954, 9.2649, 1.12106
4.35486, 9.78052, 1.89584
5.18775, 9.64145, 1.25615
6.12191, 9.30315, 1.07507
7.10935, 9.10079, 1.4967
8.36576, 8.68497, 1.50577
9.06847, 9.56404, 1.76925
10.1389, 9.43424, 1.80023
0.760193, 10.1835, 1.91006
1.73805, 10.1665, 1.18515
3.07027, 10.2115, 2.08536
4.28418, 10.2124, 0.796158
5.08156, 10.6623, 1.41773
6.40155, 10.2634, 1.58047
7.42662, 10.0515, 1.62196
7.87323, 10.7611, 2.4793
9.92222, 0.0520335, 1.66042
10.7017, 10.336, 1.56905
0.0440497, 0.0853523, 2.2872
1.11136, 0.0462304, 2.53857
1.90828, 0.769513, 2.61329
3.72498, 0.751727, 3.01259
5.09418, 0.17789, 2.98076
6.14749, 0.500348, 2.79737
7.20426, 0.673707, 2.34107
8.43287, 0.927668, 2.46639
9.1419, 0.226569, 2.74773
10.3237, 0.6489, 3.01365
1.08479, 1.28582, 2.17573
1.94019, 1.72741, 3.03034
2.89667, 1.47634, 2.4497
4.32492, 1.64071, 3.44813
4.83291, 1.95168, 2.51049
6.2226, 1.51285, 2.70401
7.5465, 1.82654, 2.74478
8.38219, 1.90705, 2.06765
9.46177, 1.19811, 2.48446
10.7315, 1.18149, 1.86863
0.234007, 2.32166, 2.90431
1.34964, 2.78317, 3.24812
1.752, 2.47911, 2.27338
4.13402, 2.58335, 2.93207
5.04792, 3.23406, 2.79317
5.69876, 2.35386, 3.04037
7.06229, 2.6014, 2.25305
7.98469, 2.96558, 2.38544
9.19124, 2.47824, 2.54994
10.2668, 2.78476, 2.94333
0.373804, 3.35771, 3.09676
1.14137, 4.32176, 2.46422
3.25912, 3.1165, 3.17468
4.20621, 4.43138, 3.2545
5.29577, 4.27328, 3.14922
6.06286, 3.695, 2.75571
6.81774, 4.11926, 1.95088
7.90251, 4.42075, 3.22601
8.57967, 3.80286, 2.72748
0.0731039, 4.02909, 2.16391
0.390537, 4.47041, 3.1259
2.09975, 5.20519, 2.4357
3.07568, 3.79539, 2.27294
3.86244, 4.65069, 2.2301
5.18286, 5.34579, 2.65154
6.16562, 5.02906, 3.32535
7.19119, 4.96035, 2.55592
8.74979, 5.17349, 2.36137
10.4928, 4.97252, 2.68735
0.166157, 5.45368, 3.60163
0.0133072, 6.22807, 2.54665
1.61974, 6.45802, 1.76145
2.07167, 5.68852, 3.32568
3.07391, 5.82563, 2.45618
4.20813, 6.71893, 2.3852
6.57997, 6.32047, 3.94425
7.13516, 6.328, 2.5596
8.44942, 6.21533, 2.65028
9.18855, 6.16375, 1.3078
9.69383, 5.69059, 2.3129
1.28041, 7.37447, 2.53014
1.56658, 7.66263, 3.55041
2.08535, 6.63266, 2.67478
3.99553, 7.38801, 3.1138
5.11746, 7.38618, 2.84944
6.13074, 7.22537, 2.01703
7.20602, 7.37156, 2.56337
9.09365, 6.91005, 2.15448
10.0952, 6.83058, 2.35034
0.119202, 7.30064, 2.80402
10.9013, 8.28103, 3.22015
2.08504, 8.16582, 2.73423
3.6509, 8.3873, 2.51349
4.70035, 8.29258, 2.71701
5.19308, 7.55879, 4.01574
6.12376, 8.35293, 2.81385
6.97931, 8.874, 2.47244
8.05929, 8.05483, 3.16176
8.75849, 8.27916, 2.41527
10.2357, 7.81634, 2.47934
0.4973, 9.12988, 3.11455
1.23314, 9.79293, 2.79773
3.58668, 9.45974, 2.51223
4.4516, 9.47625, 3.21553
5.14288, 9.11086, 2.13394
6.30353, 9.67085, 2.70583
7.25926, 9.77508, 3.02322
8.33986, 9.18953, 2.58754
9.35208, 9.22864, 3.09789
10.3307, 8.95709, 2.74964
1.26243, 10.5475, 3.45466
1.95955, 10.5465, 2.13702
3.11758, 0.391603, 2.26415
4.1611, 10.5137, 2.61708
5.17467, 10.0702, 2.638
6.82277, 10.6309, 2.51705
7.65801, 0.483372, 3.28799
8.84175, 10.1192, 2.92188
9.87166, 10.4167, 2.48162
0.00465699, 10.1001, 2.98349
0.390109, 0.516513, 3.23643
1.82748, 0.743549, 3.97634
2.78456, 0.873278, 3.34412
3.91116, 0.0278171, 3.86377
5.31441, 0.209786, 4.1178
6.29939, 0.876036, 3.88191
7.09499, 0.281101, 4.34159
7.97781, 0.982128, 4.56108
8.95789, 1.06138, 4.11925
10.6035, 0.947004, 4.19367
0.387443, 1.45205, 3.60773
1.2879, 1.76406, 3.92292
2.8175, 2.18518, 3.27728
4.51655, 0.875322, 4.13387
5.32354, 1.17865, 3.52745
6.19558, 2.1018, 3.93768
7.20077, 1.36633, 3.74001
8.16833, 1.33689, 3.46412
9.26201, 1.95392, 3.68955
10.2437, 1.77877, 3.04184
0.415618, 2.40798, 4.12726
2.11053, 2.47388, 4.23351
1.97321, 3.55336, 3.652
3.62678, 2.33184, 4.00108
4.86561, 3.02759, 3.82034
5.83814, 3.04271, 4.07231
7.23263, 2.74864, 3.29005
8.32718, 2.61044, 3.32091
9.24006, 3.16536, 3.57674
10.2556, 2.55876, 4.02854
0.824051, 3.62295, 3.95871
2.25266, 4.2457, 4.73947
3.17132, 4.09451, 4.24122
3.92269, 3.48502, 3.97451
4.68505, 4.21487, 4.14623
6.88561, 3.71327, 4.19465
7.14105, 3.77971, 2.9527
7.82792, 3.51982, 3.7021
10.0299, 4.07706, 2.7899
10.7522, 3.62851, 4.78357
10.7384, 4.53279, 3.99651
2.14786, 4.6791, 3.31467
2.85712, 5.26667, 4.09272
3.13877, 4.84437, 2.95582
4.94503, 5.33205, 3.96783
6.11968, 5.36051, 4.32412
7.3105, 4.82355, 3.92905
7.95132, 4.10892, 4.50926
10.0251, 5.18357, 3.67302
10.3085, 5.22861, 4.6702
1.17444, 5.05782, 3.38626
1.26609, 5.83925, 2.69727
2.96338, 6.31095, 3.4159
3.90697, 5.72187, 3.45089
4.77368, 6.26679, 3.19547
5.57686, 6.51141, 3.87859
7.10799, 5.61789, 3.34771
8.2105, 5.59924, 3.59907
9.2125, 5.81936, 3.28745
10.3969, 6.25003, 3.39198
1.05546, 6.78931, 3.53927
2.06883, 6.83287, 4.4607
2.55096, 7.41607, 3.63456
3.5107, 7.06823, 3.96264
4.43313, 7.83515, 4.63573
6.14332, 7.15929, 3.36913
7.45825, 6.89809, 4.03654
8.47902, 6.72045, 3.66436
9.50659, 7.24052, 3.90269
10.4767, 7.40968, 3.66454
0.677369, 8.107, 3.91327
1.97739, 8.26518, 4.43539
3.32402, 8.06558, 4.12893
4.02455, 8.69183, 3.71973
4.78598, 9.04208, 4.75104
6.08708, 8.04878, 4.1395
7.00385, 7.94736, 3.37724
8.00171, 8.61799, 4.39093
8.92462, 8.23386, 3.80293
9.90715, 8.23089, 4.06088
0.795189, 9.68004, 4.49952
1.35273, 9.03263, 3.81514
2.12432, 9.73363, 3.26839
2.70143, 8.85375, 3.22522
5.34806, 8.95065, 3.14753
6.95346, 8.99249, 3.57526
6.68227, 9.01179, 4.77696
8.00321, 10.1013, 3.81418
9.40031, 10.0653, 3.76408
10.683, 9.43508, 4.08302
0.47592, 10.789, 4.03092
2.48252, 10.7199, 3.00871
2.58384, 10.6866, 4.42112
3.52106, 9.95796, 3.48332
4.83264, 10.3045, 3.77612
5.88296, 10.4921, 3.4833
6.86797, 10.1002, 3.88962
8.57681, 10.934, 3.70797
9.53201, 0.36229, 3.66409
10.3263, 10.6999, 3.83597
0.887395, 1.2412, 4.85252
1.48578, 10.7388, 4.6346
3.4564, 10.8305, 5.46106
3.40661, 0.530648, 4.65005
4.44591, 1.51562, 5.14201
6.10297, 1.131, 5.75869
7.63059, 0.391415, 5.33392
8.19774, 10.5131, 4.71256
8.76742, 0.541012, 5.05236
9.85444, 0.580865, 4.79246
0.0330669, 2.01682, 5.32188
2.11774, 0.958165, 5.02041
2.96041, 1.56233, 4.19287
3.35173, 1.55154, 5.14263
5.1633, 2.17214, 4.48139
5.55761, 1.21655, 4.59023
6.92493, 1.395, 4.7281
7.75416, 1.97808, 4.34707
8.70908, 2.04017, 5.03974
9.91348, 1.66735, 4.48718
1.35169, 2.13357, 5.07723
1.90854, 2.92462, 5.86862
3.06074, 3.1114, 4.72365
4.33609, 2.55083, 4.90983
5.16623, 3.12364, 4.86462
6.65403, 2.54431, 4.73476
7.35955, 3.09124, 6.01996
8.30427, 2.87082, 4.34698
9.75768, 3.40047, 5.167
0.626564, 2.9214, 5.2974
0.730481, 3.91449, 5.12782
2.05661, 3.2343, 4.91344
2.7776, 3.67975, 5.84097
4.34697, 3.69769, 5.01559
5.90508, 4.35491, 4.25709
6.33459, 3.84359, 5.07622
7.24226, 3.3457, 5.05633
8.84471, 3.99685, 4.98809
8.98943, 4.57162, 3.75076
9.7249, 4.03996, 4.18264
0.497004, 5.58884, 4.66382
1.24499, 4.64779, 4.45797
3.51971, 4.22803, 5.27225
3.96221, 5.15382, 4.45861
4.73006, 4.86357, 5.19275
5.72487, 4.90783, 5.30368
7.1575, 4.46896, 5.00328
8.06257, 5.16281, 4.53758
9.3942, 4.92504, 5.21832
0.028685, 4.89584, 5.37698
0.219165, 6.51724, 4.09956
1.41908, 5.80223, 4.16241
2.31728, 5.81098, 4.79328
3.34081, 5.81505, 4.98986
4.2446, 6.5516, 4.48841
7.18972, 5.68394, 4.68083
7.8984, 5.7658, 5.55886
8.03692, 6.21782, 4.53253
9.00956, 5.47326, 4.42695
9.69025, 6.25835, 4.44672
10.877, 7.43267, 4.78008
1.07525, 6.68441, 4.96046
3.04919, 6.72923, 5.27239
3.98137, 7.80944, 5.53861
5.33356, 7.21231, 4.95324
6.08128, 7.88041, 5.19493
6.78033, 7.02579, 4.92999
8.1488, 7.64383, 4.1753
8.987, 6.90911, 4.82457
9.81064, 7.54731, 4.83853
0.224024, 8.79854, 4.80262
1.04531, 7.71367, 5.1429
2.79682, 7.70825, 5.06657
3.69021, 8.70143, 5.00857
4.87425, 8.34121, 5.55631
5.73724, 8.93447, 5.33544
7.04377, 8.10284, 4.4908
8.39566, 7.9495, 5.255
9.07508, 8.57693, 4.75297
10.2167, 8.45513, 5.0381
1.18348, 9.78124, 5.46772
1.71847, 8.97981, 5.11712
2.67043, 9.15323, 4.49172
4.10647, 10.0696, 5.20148
5.33731, 9.96639, 4.65478
5.95835, 9.31423, 3.89676
7.46475, 9.25833, 5.5572
8.73906, 9.2999, 3.93075
9.95331, 9.47872, 5.03908
10.81, 9.77078, 5.58179
0.575506, 10.5071, 5.03249
1.83063, 9.77084, 4.3629
2.64965, 9.91154, 5.31246
3.70016, 9.56209, 4.43389
4.37956, 0.306433, 4.99914
6.16135, 0.0467397, 4.80927
6.12801, 9.87845, 5.48665
7.53308, 9.51125, 4.50458
9.25977, 10.6439, 4.61399
10.5089, 10.7562, 4.88422
1.61104, 1.38242, 5.78661
2.06873, 0.339732, 6.45005
2.68765, 0.983445, 5.93992
3.72869, 0.699504, 6.00377
5.09648, 0.759925, 5.63361
5.8132, 1.14735, 6.72924
7.37501, 0.81217, 6.44937
8.16397, 1.6016, 5.80043
9.41754, 0.487402, 5.9926
10.2981, 1.10463, 5.65137
0.279775, 0.555529, 5.95089
1.15017, 1.79006, 6.60835
2.40848, 1.99263, 5.1957
3.55468, 1.72675, 6.20925
5.03391, 2.45496, 5.66755
5.86613, 2.02056, 6.20277
6.82045, 1.85699, 5.76612
7.76176, 2.38667, 5.30486
9.43649, 1.4803, 6.14187
10.2624, 2.13222, 6.37312
0.7005, 2.88176, 6.39939
1.76562, 2.70255, 6.89531
3.24707, 2.53256, 5.55694
3.87891, 3.38215, 5.86676
5.26406, 2.73348, 6.60964
6.37204, 2.95663, 5.87232
7.15013, 2.77473, 6.98194
8.56841, 3.08024, 5.47912
9.69216, 2.1611, 5.33816
10.7018, 2.98966, 5.84182
0.331165, 3.97953, 6.17244
1.50721, 3.9421, 5.79422
2.26201, 3.54688, 6.68939
4.41374, 4.31166, 6.0191
5.12336, 3.57441, 5.77561
5.98054, 4.19934, 6.14318
7.03078, 4.09914, 5.9401
8.07937, 4.095, 6.32328
9.10112, 4.07483, 5.99193
10.0988, 4.3852, 5.68533
0.958086, 4.80913, 6.05104
1.49286, 5.72116, 5.49352
2.2288, 4.53206, 6.34666
2.90368, 5.08285, 5.64698
5.31291, 5.78924, 5.91692
6.80341, 5.1444, 5.71869
